-0.271269 0.339535 2.17358
-0.0356301 -0.585522 2.47431
-0.30359 0.353691 2.18854
-0.0362159 -0.0996953 2.15524
-0.01344 -0.101388 2.15356
6.77037e-07 -0.173634 2.16642
0.21823 0.392059 2.0666
-0.108292 0.494894 2.1085
0.201235 0.223406 2.13029
-0.120519 0.346965 2.135
-0.316104 0.508644 2.13548
-0.0556293 -0.614751 2.47651
-0.327622 0.508355 2.13836
-0.0617777 0.491724 2.10308
-0.0470068 -0.602502 2.47334
0.220387 0.399336 2.06824
-0.126539 -0.58822 2.49629
-0.0399387 -0.600582 2.47521
0.016221 -0.173377 2.16609
0.231509 0.367218 2.07174
0.227762 0.361559 2.0703
-0.0239299 0.115895 2.18659
-0.0367214 -0.310106 2.19876
0.0136479 -0.0600614 2.15534
0.222474 0.331319 2.07655
0.0849137 0.281379 2.10598
-0.291225 0.328937 2.1793
-0.0244756 0.309749 2.12448
0.0111688 -0.0650668 2.15617
-0.0306207 0.298895 2.12641
-0.0355425 0.299047 2.12778
-0.189681 0.285787 2.16649
0.088635 0.27667 2.10792
0.0947597 0.268771 2.10919
0.125605 0.239155 2.11714
-0.0943739 -0.172317 2.18463
0.102486 0.228812 2.14374
0.0374243 -0.169821 2.16598
-0.0957561 -0.169922 2.18752
0.0361931 -0.166598 2.16757
-0.0138434 0.134404 2.18475
-0.0996118 -0.424232 2.47032
-0.0201419 0.115795 2.18553
-0.122142 -0.595151 2.49436
-0.0397834 -0.100844 2.15822
-0.0348232 -0.100414 2.15962
-0.0136525 -0.100952 2.15313
-0.0530266 0.116075 2.19189
-0.0287997 0.166608 2.1739
0.22464 0.34895 2.07447
-0.0269291 0.302453 2.12499
-0.0257213 0.3123 2.12646
-0.108004 0.494089 2.10671
-0.0369659 0.275023 2.13911
-0.13252 0.363293 2.13025
-0.012605 0.120387 2.18879
0.223758 0.251203 2.09981
0.0607823 0.299267 2.11057
0.027457 -0.161142 2.167
-0.00887945 -0.31334 2.20294
0.0161219 -0.0563152 2.15415
-0.0522137 -0.124351 2.15827
0.000753325 0.141833 2.18441
-0.0128285 0.139069 2.18338
0.200857 0.222571 2.12888
-0.190552 0.285475 2.16226
0.245628 0.277095 2.08425
-0.0301446 0.299035 2.12739
-0.00365766 0.322367 2.11711
-0.121434 0.349637 2.12944
-0.0555649 -0.613209 2.47351
-0.116039 -0.607591 2.48775
-0.248495 0.4235 2.14631
-0.0469628 -0.60219 2.4713
0.0261923 -0.170148 2.1654
0.0142253 -0.169808 2.16519
-0.0351298 -0.58727 2.47765
-0.126841 -0.587559 2.49717
-0.0733031 -0.171891 2.18656
-0.015928 -0.331639 2.19627
0.0678241 0.283191 2.11015
0.0605628 0.298249 2.11134
-0.0242251 0.308808 2.12412
-0.291406 0.328856 2.17878
-0.015639 -0.035687 2.15385
0.0156338 -0.0571541 2.15319
0.0126569 -0.0606445 2.15454
0.224351 0.348871 2.07401
-0.133167 0.362672 2.1288
0.00527758 0.143659 2.18163
-0.316843 0.508271 2.13711
-0.328723 0.507255 2.13745
-0.0417045 -0.334695 2.19392
-0.035018 -0.100901 2.15577
-0.0395075 -0.100804 2.15699
-0.0113967 -0.327733 2.19984
-0.0156652 -0.102483 2.15834
-0.0417224 -0.319519 2.19526
-0.0514853 -0.12467 2.15923
-0.00988901 -0.312896 2.20084
-0.0372728 -0.308125 2.20161
-0.0173522 0.139076 2.18291
-0.0776785 -0.15455 2.1824
0.035178 -0.167055 2.16556
-0.0401817 -0.599642 2.47301
-0.0945254 -0.173312 2.18816
-0.000747058 -0.173165 2.16679
-0.0307483 -0.177842 2.17034
-0.0352815 -0.179234 2.17288
-0.219459 0.322443 2.16728
-0.038959 0.300256 2.12704
-0.185408 0.35837 2.15447
-0.0250324 0.103302 2.19473
-0.319934 0.504783 2.12817
-0.053748 0.115663 2.19045
-0.313515 0.501953 2.13452
-0.352949 0.503713 2.141
-0.157042 0.494372 2.11346
-0.00535063 -0.301798 2.20608
-0.0899655 -0.17649 2.18748
-0.103968 -0.617081 2.48617
-0.0361236 0.300666 2.13298
-0.0460203 -0.602122 2.47373
-0.0398533 -0.599846 2.47382
0.00105644 0.140784 2.18393
-0.0116346 0.14439 2.18592
-0.0132268 -0.0435519 2.14912
-0.112214 -0.61249 2.48687
-0.034751 -0.101116 2.1571
-0.0168473 -0.104368 2.15638
0.0352191 -0.167922 2.16861
-0.0462074 -0.331048 2.1924
-0.0426264 -0.33159 2.19499
0.0262038 -0.171098 2.16632
0.0136371 -0.170609 2.16615
-0.000746929 -0.172858 2.16676
-0.0342636 0.306214 2.12783
-0.0261496 0.115307 2.18669
-0.022633 -0.308155 2.19964
0.0693346 0.288661 2.11181
-0.0243938 0.10268 2.19177
0.212685 0.352789 2.07492
-0.186179 0.364967 2.14972
-0.107352 0.492739 2.10725
-0.0791122 -0.317222 2.19714
0.0117978 -0.175529 2.15888
-0.189394 0.285236 2.16607
-0.332441 0.508297 2.13863
-0.000745392 -0.169179 2.16638
-0.0187638 -0.167941 2.17168
-0.00248827 0.321008 2.11688
-0.0542614 -0.614569 2.47677
0.0623881 0.294279 2.11386
-0.0496511 0.167543 2.18337
-0.0296107 0.166144 2.17462
-0.0430264 0.326159 2.12418
-0.0617638 -0.0542577 2.16361
-0.101886 -0.0579449 2.17741
-0.00781018 0.299983 2.133
-0.039898 -0.101445 2.1463
0.208849 0.394779 2.07098
-0.0117118 -0.308866 2.20084
-0.0783511 -0.17049 2.17537
-0.066194 -0.325348 2.19209
-0.312422 0.502825 2.13504
0.0185675 0.310248 2.11528
-0.321905 0.395675 2.18744
-0.0534267 0.115766 2.18967
0.0956157 0.269052 2.1119
0.210138 0.39939 2.06681
-0.0361118 0.289656 2.13247
-0.273409 0.335234 2.177
-0.170688 0.247605 2.17038
0.20058 0.23538 2.12156
-0.0443032 -0.601035 2.47016
0.0886527 0.22961 2.12141
-0.0345794 -0.588179 2.47785
0.0830163 0.227191 2.13938
-2.94268e-05 0.220477 2.15883
-0.0328099 -0.33966 2.19485
-0.206222 0.305992 2.15796
-0.054623 -0.313135 2.19378
-0.0339239 0.306143 2.12855
-0.0219505 -0.307808 2.20118
-0.017471 0.116512 2.19008
-0.0381201 0.310403 2.12604
0.218027 0.411132 2.06685
0.0301504 -0.180266 2.16681
-0.0171463 -0.0367549 2.15038
0.0129186 -0.16955 2.16969
0.0128362 -0.0693776 2.1544
0.0237197 -0.163416 2.17063
-0.0429119 -0.101295 2.15443
-0.0172199 -0.104398 2.15733
-0.0193794 -0.110921 2.15863
-0.0515769 -0.124892 2.15831
0.0322781 -0.149185 2.1637
-0.0782594 -0.15276 2.18332
-0.139862 0.376784 2.12851
-0.0826749 -0.16148 2.18523
-0.0693912 -0.163677 2.17741
-0.117659 -0.170234 2.18876
-0.111076 -0.172606 2.18768
0.232446 0.351592 2.06702
0.226453 0.35159 2.06862
-0.093501 -0.176336 2.18427
-0.0541653 -0.182732 2.17549
-0.0383558 0.275651 2.13942
-0.0633286 0.343406 2.11978
-0.00221672 0.0711853 2.19548
-0.0423434 0.327431 2.12548
0.00418978 0.321293 2.1172
-0.054172 -0.613418 2.47353
-0.0940865 -0.60971 2.48673
0.211087 0.231331 2.12106
-0.0545202 0.116888 2.18983
0.0371746 -0.276219 2.19831
-0.104075 -0.608061 2.48825
-0.0110082 -0.310347 2.20674
-0.322688 0.233192 2.22036
-0.106901 0.493581 2.1055
-0.0191611 0.285771 2.1362
0.142667 0.160782 2.17223
0.203267 0.469909 2.06321
-0.0613298 -0.309156 2.20002
-0.0261408 0.129602 2.18605
0.0817954 0.288375 2.10782
0.199275 0.242751 2.10779
0.0375402 0.410282 2.09684
-0.0178787 0.138191 2.1869
-0.11866 -0.607505 2.49394
-0.0380161 -0.601149 2.47856
-0.0350539 -0.589296 2.47783
-0.127972 -0.588933 2.50056
-0.21673 0.232437 2.19031
0.201292 0.22135 2.12913
-0.0467738 -0.307181 2.19414
-0.0175687 -0.0389086 2.14878
0.0132775 -0.0694383 2.15524
0.0262819 -0.170922 2.16643
0.0289185 -0.15563 2.17007
-0.0944418 -0.60834 2.483
0.233058 0.381328 2.07246
0.0107381 -0.171389 2.16554
0.00798505 0.314339 2.12063
-0.0433967 -0.103545 2.15677
0.0635504 0.295292 2.11517
0.0106984 -0.0829505 2.15648
0.010693 -0.0752859 2.15571
-0.0988152 -0.201442 2.18606
0.0994735 0.23304 2.12698
-0.061552 -0.054223 2.16141
0.000400427 0.218734 2.15888
-0.0153613 -0.331499 2.2
-0.0205975 0.0711437 2.19874
-0.067913 0.0599545 2.2
0.219312 0.355813 2.08294
-0.0427521 0.324552 2.12491
-0.047999 0.320494 2.13257
-0.0359454 -0.176757 2.17395
-0.0721932 -0.107081 2.17042
-0.0730875 -0.322678 2.19828
-0.0377475 0.289361 2.12905
-0.0629906 0.341954 2.12271
0.00539691 0.482272 2.09449
0.0288888 -0.145903 2.16912
-0.321165 0.233474 2.22512
-0.250168 0.421086 2.14073
0.0379461 0.410691 2.09665
0.244394 0.401787 2.06366
-0.0884337 -0.528095 2.48031
0.0108971 0.0838775 2.19532
-0.132962 -0.167508 2.18952
-0.0989313 -0.170083 2.18876
0.0231541 0.311288 2.11792
-0.0555739 0.307182 2.13011
-0.122927 -0.257935 2.19676
0.198248 0.27207 2.09687
0.180999 0.26335 2.10023
-0.0201281 -0.0726754 2.14708
-0.106006 0.402372 2.12104
-0.00220349 0.161709 2.18396
-0.0178901 0.138832 2.18846
-0.0206663 -0.0404118 2.14987
-0.108049 0.493915 2.11116
0.23196 0.364912 2.06707
-0.177293 0.362793 2.14365
-0.0520131 -0.183154 2.17297
-0.0364951 -0.177629 2.1754
0.0730706 -0.17546 2.18844
-0.00218072 -0.170309 2.16464
-0.111847 -0.169109 2.18556
0.0257418 -0.167433 2.16505
-0.0298244 -0.122721 2.14437
-0.104969 -0.0588584 2.17299
-0.0639722 -0.0549771 2.15606
0.0163448 -0.0460863 2.15328
-0.19717 0.300365 2.15946
-0.0242626 0.0724597 2.19719
-0.0267289 0.245884 2.14254
-0.0242272 0.101027 2.1942
-0.0179178 0.1072 2.19177
-0.173677 0.246693 2.17532
0.197959 0.236188 2.11522
-0.218042 0.231857 2.18248
0.123468 0.211541 2.13779
-0.121848 -0.257958 2.19652
-0.0398521 0.123164 2.1888
0.216856 0.40887 2.06432
-0.0660503 0.344057 2.12328
0.220614 0.332847 2.07176
0.0463448 0.303732 2.1142
-0.102666 -0.307189 2.19049
-0.0462164 0.0980562 2.19307
0.0369991 0.412173 2.09921
-0.276669 0.330309 2.17619
-0.0896578 -0.158546 2.17965
-0.0506346 0.372629 2.11522
-0.0304919 0.297874 2.11714
-0.169378 0.247528 2.18314
-0.0602734 0.491546 2.08812
0.212365 0.404039 2.08722
0.089233 0.277372 2.10554
0.217603 0.34713 2.10313
0.221075 0.262315 2.12773
-0.202581 0.251577 2.20223
-0.225912 0.249526 2.21504
-0.0932629 -0.175893 2.19871
0.112035 0.233149 2.14989
0.0878198 0.277434 2.10364
-0.0304752 0.298155 2.11604
0.217831 0.346935 2.10353
-0.234735 0.370711 2.18512
0.235337 0.370177 2.10179
0.231836 0.376508 2.0983
0.240057 0.378135 2.1009
0.220547 0.395198 2.09025
-0.0285244 0.48739 2.08141
-0.0603733 0.491429 2.08841
0.0918465 0.277473 2.10342
-0.0653042 -0.16922 2.18762
-0.0376331 0.298422 2.11879
-0.0344946 0.306005 2.11375
0.247728 0.390429 2.09995
0.234471 0.366653 2.10227
0.231178 0.369411 2.10001
0.219894 0.389762 2.09261
-0.106705 0.497493 2.09915
0.220236 0.403289 2.09052
0.240007 0.378297 2.10179
0.231079 0.376538 2.09711
0.23522 0.369029 2.10056
0.215472 0.344099 2.10416
-0.0353578 0.297554 2.11669
0.0237895 -0.165234 2.15568
-0.0110356 0.140429 2.18459
0.234084 0.342142 2.10806
-0.106463 0.497251 2.09956
-0.0368017 0.273826 2.12884
0.0605498 0.29819 2.10248
-0.191932 0.288236 2.17781
-0.121032 0.350327 2.12419
0.215686 0.344459 2.1038
0.215395 0.352541 2.10174
0.241782 0.363102 2.1062
0.235354 0.368369 2.101
0.239423 0.378449 2.10117
0.0123087 -0.166724 2.16051
0.0675792 0.283211 2.1032
0.0573561 0.294428 2.101
-0.0358476 0.297448 2.11689
0.0602975 0.297545 2.10222
0.0894128 0.275632 2.1037
-0.015076 -0.0360831 2.14134
-0.0334931 -0.103529 2.15262
-0.0706617 -0.107753 2.17518
0.232046 0.376074 2.09873
0.210558 0.390863 2.08994
-0.0920913 -0.179368 2.19884
-0.0519678 0.489195 2.08616
-0.0304032 0.486931 2.07955
-0.0543759 0.118178 2.19229
-0.0874341 -0.182295 2.19736
0.23872 0.377852 2.09981
-0.0331472 -0.103401 2.15361
0.236603 0.348655 2.10675
0.235519 0.368292 2.10042
-0.122334 0.354205 2.12649
-0.0116875 -0.32228 2.19566
0.062125 0.292978 2.10494
-0.0427806 0.32451 2.11321
-0.117106 0.348995 2.12739
-0.125991 0.349073 2.12835
-0.0999737 -0.063594 2.18469
0.238216 0.353264 2.10629
-0.258062 0.445298 2.16328
-0.0792801 -0.167256 2.18637
-0.0270977 0.11859 2.18697
-0.116334 0.349867 2.12593
0.0114952 -0.16622 2.15972
-0.071229 -0.109405 2.17447
-0.079708 -0.167429 2.18841
0.00985596 -0.0804787 2.15014
-0.0909783 -0.183357 2.19766
-0.0630286 0.342905 2.11157
-0.0420927 0.326461 2.11447
0.0898558 0.275722 2.10059
-0.172133 0.247891 2.18887
0.238533 0.366239 2.10418
-0.116283 0.349379 2.12542
0.00794145 0.312032 2.10575
-0.0424923 0.323998 2.11355
-0.0345887 -0.179162 2.17421
-0.0626202 0.341509 2.11221
-0.251572 0.431797 2.15953
-0.123117 0.407106 2.1164
-0.192266 0.289495 2.17966
-0.257076 0.44424 2.16434
0.237555 0.378183 2.09853
-0.177437 0.366331 2.14762
-0.050366 -0.186984 2.1785
-0.0354492 0.319326 2.11433
-0.220618 0.233493 2.20913
0.197907 0.277795 2.1155
-0.0469465 0.100554 2.19141
-0.0333381 0.16589 2.16906
-0.0201591 0.0744098 2.18036
-0.216867 0.373224 2.20383
-0.122399 0.350549 2.12486
0.253786 0.350951 2.15255
-0.261863 0.34228 2.2406
-0.228002 0.129772 2.37527
-0.0572423 0.311198 2.10275
-0.193174 0.31751 2.18175
-0.0488268 0.116536 2.18927
-0.0407387 0.305958 2.09984
-0.0537694 0.305456 2.10469
-0.0549533 0.118257 2.19028
-0.0264904 0.118543 2.17857
-0.0431914 0.295763 2.10184
0.00708897 0.290869 2.0926
-0.107108 0.498357 2.10254
-0.17041 -0.133482 2.30967
0.0492099 0.281093 2.08024
0.0755578 0.275271 2.0873
-0.0465407 0.273305 2.11344
-0.00501003 -0.172125 2.15773
-0.184932 0.356686 2.18314
-0.182186 0.292211 2.18953
-0.0346843 -0.101806 2.15971
-0.0324552 -0.101893 2.1582
-0.0144807 -0.101077 2.15129
0.491252 0.347132 2.51074
-0.207768 0.252537 2.23308
-0.0647151 0.141477 2.19334
0.0907697 0.265146 2.09979
-0.0483936 0.318015 2.10051
-0.159494 0.25066 2.19216
-0.0455017 0.304382 2.10048
-0.0171587 0.318647 2.08609
-0.0555269 0.11843 2.1897
-0.0256218 0.118714 2.17872
-0.21712 0.373039 2.20311
-0.0564045 0.311284 2.10325
-0.0690023 0.491178 2.08055
-0.0439746 0.295484 2.09982
-0.0651389 0.149546 2.19255
0.0482962 0.280677 2.07852
-0.16069 0.248747 2.1923
0.44781 0.337847 2.44625
0.0751198 0.278477 2.08876
0.0720404 0.277507 2.08981
-0.046968 0.273143 2.11295
0.0856465 0.276431 2.09506
-0.0598594 0.490768 2.08046
-0.0659247 0.140892 2.19185
-0.235734 0.445431 2.18996
0.00929316 0.291195 2.09537
-0.229211 0.437197 2.18908
-0.019491 0.137035 2.17715
-0.0420492 0.305169 2.09801
-0.0733093 0.492298 2.08533
-0.108708 0.497645 2.09968
0.118242 0.23388 2.15562
-0.122718 0.503758 2.1096
-0.0958024 0.345121 2.11742
-0.0300493 0.109913 2.18373
-0.0200397 0.0743258 2.18039
-0.207096 0.25186 2.23237
-0.0131272 -0.100253 2.15317
-0.0151537 -0.114215 2.14895
-0.175051 0.374987 2.1534
-0.0655117 -0.164073 2.20163
-0.0499877 0.296418 2.10399
0.00309505 0.300318 2.08679
-0.0756255 -0.176032 2.20724
-0.0286303 -0.177945 2.1735
0.270002 0.350642 2.16575
-0.0254159 0.118628 2.17885
0.0519654 0.280635 2.08233
0.0135925 -0.167328 2.1439
-0.0696925 0.143008 2.18788
-0.0619341 0.143628 2.193
0.0779501 0.274585 2.08868
-0.0485523 0.295204 2.10087
-0.042098 0.296214 2.10271
-0.0353765 0.306248 2.10117
-0.0379514 -0.333603 2.20663
0.000928654 -0.0643837 2.13748
-0.0323169 -0.102308 2.15754
0.172884 0.383859 2.0078
-0.0355663 0.302301 2.10124
-0.267186 0.341941 2.24836
0.104655 0.232976 2.14958
0.0464341 0.292551 2.08681
-0.00635128 0.306985 2.08406
-0.0551628 0.312513 2.10528
-0.0172956 0.316496 2.07769
-0.269464 0.339197 2.24996
-0.106796 0.497843 2.10171
0.168227 0.394044 2.00194
-0.0390154 0.111523 2.18681
-0.179716 -0.118311 2.31573
-0.0622893 0.488838 2.077
-0.249552 0.352426 2.23244
-0.0036238 -0.0687799 2.14028
-0.0382186 0.309554 2.10069
0.141327 0.437892 1.96185
0.116149 0.23299 2.15254
-0.0485919 0.286699 2.10752
0.435225 0.335741 2.42838
0.076293 0.279132 2.09033
0.0700812 0.276805 2.08721
0.200992 0.25347 2.16243
-0.0486733 0.27197 2.11469
0.150777 0.443839 1.95146
-0.0622553 -0.167712 2.19759
-0.0662571 -0.165186 2.20029
0.139068 0.445694 1.97916
-0.0244264 0.117799 2.18117
-0.0463156 0.294851 2.10443
-0.193135 0.311397 2.18523
0.0553827 0.2806 2.08721
0.00649939 -0.167459 2.15344
-0.00363745 -0.169412 2.1608
-0.0216423 -0.125048 2.15439
-0.0827554 -0.173999 2.21302
-0.0351899 -0.102891 2.15992
-0.031334 -0.10304 2.15732
-0.180998 -0.128487 2.31394
-0.0335827 0.26877 2.12691
-0.0552031 0.117991 2.19017
0.0657728 0.279245 2.1035
-0.0742575 0.224399 2.15963
0.0907583 0.231295 2.1338
-0.0328467 -0.330847 2.20378
-0.201567 0.23316 2.22382
-0.0320574 0.246797 2.12576
-0.068371 0.49034 2.08312
-0.0490566 0.271386 2.11508
-0.0441145 0.274184 2.11835
0.0541253 0.276988 2.08832
0.0694823 0.277958 2.08167
-0.179027 0.289768 2.19127
0.0782751 0.273124 2.08884
0.0586959 0.285802 2.08637
0.0451543 0.294697 2.08255
0.00926997 0.302334 2.10103
-0.183725 -0.149263 2.32331
-0.0532317 0.313256 2.10872
-0.269418 0.337898 2.24874
-0.0567573 0.323546 2.09652
0.0436372 0.291766 2.08321
-0.238672 0.445739 2.18962
0.162534 0.379772 2.00962
-0.0356234 0.304598 2.098
-0.033281 0.168155 2.16866
-0.0673634 0.376061 2.08824
-0.140035 0.375583 2.12856
0.184317 0.256543 2.14877
-0.13491 0.363795 2.12365
-0.0776833 -0.180673 2.2085
-0.0974243 -0.174206 2.22368
0.249726 0.35034 2.14473
-0.234226 0.442989 2.18545
0.501118 0.349017 2.51848
-0.252187 0.346724 2.23261
-0.0638379 0.331543 2.10154
-0.0251583 0.321284 2.08031
-0.0725241 -0.163368 2.20461
0.0400556 0.300902 2.08517
-0.0409605 0.110612 2.18317
0.0612707 0.281228 2.08523
0.148274 0.438566 1.97126
-0.237197 0.450091 2.18855
0.0552715 0.272447 2.08771
-0.0287019 -0.335664 2.2037
-0.279776 0.350367 2.25852
0.040602 0.296034 2.07642
-0.105384 0.497127 2.10347
-0.070346 0.489062 2.0804
-0.12417 0.345754 2.11143
0.0112526 -0.181397 2.14888
-0.297286 0.48366 2.42413
-0.0311935 0.117831 2.18042
0.0857355 0.267134 2.09431
-0.0555778 0.322845 2.09788
-0.00905184 0.307715 2.08471
0.047136 0.290203 2.08546
0.0534767 0.284578 2.0825
0.0532425 0.279205 2.08259
-0.0392017 0.280818 2.11188
-0.0141224 -0.0452771 2.14291
-0.0503789 0.271122 2.11444
0.263749 0.275674 2.216
-0.164934 0.254316 2.20269
-0.0783253 -0.176726 2.21528
-0.0319005 -0.103567 2.15706
0.0817268 0.229336 2.12276
0.0743147 0.228039 2.12136
-0.200029 0.230033 2.22559
-0.0170429 -0.105354 2.15286
-0.199598 0.227377 2.22747
0.0049522 -0.168047 2.15165
-0.0305777 0.105154 2.18364
-0.0250202 0.117703 2.18054
-0.0505674 0.16993 2.18397
-0.171869 -0.136595 2.31182
0.0796767 0.259957 2.09543
-0.0983188 -0.174497 2.2229
-0.0691644 -0.184308 2.20412
0.268324 0.285893 2.22488
0.296708 0.296392 2.25895
0.0862948 0.272585 2.09473
-0.12848 0.370518 2.12944
0.147415 0.438152 1.97117
-0.237583 0.44777 2.18356
0.18048 0.256202 2.14456
-0.00515158 0.0884676 2.17677
-0.0649615 0.337122 2.10544
0.0921102 0.225994 2.14405
-0.063934 -0.108358 2.1837
-0.008731 0.31664 2.08441
-0.0380612 0.111067 2.18847
-0.221586 0.436429 2.17745
0.0311405 0.296514 2.08162
0.163788 0.393004 1.9959
-0.0946472 -0.0607228 2.19689
-0.014647 -0.123722 2.15662
-0.0898497 -0.0614013 2.19751
-0.0657984 0.376196 2.09014
-0.0770652 -0.180287 2.20885
-0.0431326 0.105729 2.19136
-0.133844 0.362906 2.12687
-0.146617 0.504538 2.12733
-0.175413 0.357849 2.16163
-0.0715912 0.341688 2.10166
-0.054531 0.324552 2.09971
-0.270529 0.342387 2.24238
-0.019261 0.31792 2.0849
-0.20749 0.329876 2.19591
-0.0479562 0.307677 2.10558
-0.0430957 0.303901 2.10615
-0.0510734 0.170045 2.18351
-0.0314242 -0.178929 2.17825
-0.0308542 0.118506 2.18122
-0.0294292 0.105949 2.1867
0.00325588 -0.167992 2.15105
-0.0196362 -0.112892 2.15225
-0.0139072 -0.0997244 2.14825
-0.0183488 -0.0729178 2.14708
0.00879275 -0.087943 2.13522
0.0884046 0.274729 2.0985
0.291872 0.295804 2.25224
-0.125131 0.3502 2.13278
-0.160424 0.508861 2.13154
0.264395 0.284671 2.21779
-0.0701801 0.331645 2.09059
0.090539 0.259262 2.09512
-0.138213 0.37277 2.12609
-0.044854 0.105805 2.18937
-0.0357117 0.375854 2.06859
0.173034 0.254901 2.13449
0.158291 0.251641 2.13134
-0.013979 0.315404 2.08131
-0.0782832 -0.180563 2.21187
-0.231534 0.448813 2.19068
0.0964312 0.227429 2.14861
-0.0123955 0.30886 2.08036
-0.221501 0.437407 2.17677
-0.0632562 0.371998 2.08509
-0.157634 0.250136 2.20401
-0.200957 0.227814 2.22537
-0.0153215 0.14155 2.17659
-0.00899528 0.135972 2.17797
-0.0202792 -0.106879 2.14928
-0.264557 0.342747 2.24927
0.0299535 -0.239603 2.15382
0.0429445 0.288974 2.07876
0.256845 0.275813 2.20311
0.265158 0.27176 2.21297
-0.177747 -0.129875 2.31766
-0.169986 -0.131087 2.30448
-0.0291802 0.132988 2.17833
-0.0694093 0.0621036 2.20042
-0.0734143 0.339692 2.09979
0.0874225 0.267879 2.09713
-0.000376914 0.305233 2.07214
-0.160127 0.505146 2.12913
-0.0619414 -0.111221 2.18474
-0.2215 0.436397 2.17564
-0.0497569 0.101205 2.18754
0.256755 0.260536 2.20763
-0.137537 0.366835 2.12822
-0.171051 0.367435 2.15473
-0.0881082 0.34341 2.11048
-0.080476 0.331415 2.11639
-0.0907029 0.330709 2.11257
-0.255214 0.341256 2.23652
-0.179752 0.291221 2.19266
-0.0869962 -0.323566 2.23589
-0.112808 -0.242622 2.25114
-0.0436645 -0.185335 2.18662
-0.0330863 -0.1792 2.1785
-0.0923141 -0.174883 2.22425
-0.0206529 -0.109546 2.14986
-0.00813082 -0.0616856 2.13774
0.0113769 -0.0203644 2.12692
-0.0686063 0.0636816 2.20645
-0.0507916 0.100191 2.18604
-0.0326886 0.131971 2.17665
-0.0758171 0.221674 2.16129
0.11982 0.224717 2.13408
0.144495 0.229455 2.16594
-0.200005 0.236873 2.22981
0.185334 0.245094 2.14218
0.265069 0.271654 2.21566
0.362268 0.297827 2.32695
0.0872253 0.275401 2.09956
0.0452621 0.28346 2.07371
0.0823761 0.291118 2.10219
-0.0480864 0.297654 2.1008
-0.197356 0.311339 2.18318
-0.271094 0.335954 2.25039
-0.0385114 0.317908 2.09008
-0.0945583 0.348138 2.10421
-0.172955 0.367135 2.15272
-0.124534 0.409765 2.11818
-0.231117 0.440201 2.19538
-0.235254 0.444582 2.18223
0.0247359 -0.172417 2.19003
-0.405591 -0.366754 2.0441
-0.0123159 0.151028 2.29238
0.106654 0.2374 2.22441
0.0155094 -0.171615 2.18288
-0.0645481 0.493097 2.10405
0.25847 0.295692 2.19682
0.00525113 0.159726 2.29335
-0.398198 -0.37326 2.04688
0.0249717 -0.172938 2.18919
0.0146075 -0.171522 2.1859
-0.0509634 -0.335452 2.18358
-0.0920687 -0.167015 2.15153
-0.0305105 0.17314 2.28182
-0.0527403 -0.332959 2.18087
0.230338 0.425597 2.17607
-0.0460478 -0.307527 2.18357
-0.0117959 0.14973 2.28284
0.0249768 -0.172453 2.19228
-0.387949 -0.364947 2.04577
-0.01591 0.153991 2.28749
-0.0646899 0.492714 2.10393
0.211091 0.235788 2.23669
0.0127474 -0.171663 2.18528
0.247506 0.406036 2.18426
-0.0532478 -0.333166 2.18217
-0.035323 -0.321229 2.18887
-0.108602 0.490445 2.09146
-0.0259384 -0.16469 2.17426
-0.0121429 0.149913 2.28919
0.0130537 -0.172031 2.18257
-0.00779008 0.149252 2.28768
0.0262292 -0.172231 2.19056
0.0363296 -0.1726 2.19336
0.0143209 -0.175509 2.18687
0.0801623 -0.177166 2.22764
-0.00541308 0.326391 2.13208
0.0863857 0.233943 2.20609
-0.155384 0.238145 2.08776
-0.0469455 -0.331612 2.18483
-0.0461593 -0.334744 2.18466
0.0676243 0.289748 2.13965
-0.0703436 0.490801 2.10228
0.20843 0.497147 2.17056
-0.178261 0.196997 1.82281
0.132383 0.21393 2.23192
-0.0723723 -0.102145 2.15072
-0.0981315 -0.056764 2.13738
-0.0792318 -0.159161 2.15583
-0.362759 -0.498475 2.07065
0.0845834 0.237051 2.2059
-0.0478877 -0.311267 2.18139
-0.00894559 0.147979 2.29265
-0.0533189 -0.333449 2.18215
-0.0172312 0.125695 2.28477
-0.0460385 -0.33536 2.18287
0.0105265 -0.0641635 2.169
0.0376591 -0.176053 2.19561
0.0150252 -0.058502 2.17137
-0.0417507 -0.323037 2.18626
-0.056161 0.491906 2.10619
-0.0374202 -0.101512 2.15605
0.208494 0.496781 2.16967
-0.0224406 0.112524 2.26679
0.242632 0.393888 2.18197
0.056775 0.305889 2.14516
0.0621968 0.300612 2.14547
0.00116158 0.226947 2.23261
-0.0539638 -0.18213 2.1661
0.0478144 -0.166612 2.19746
-0.0126054 0.150081 2.28841
-0.0196877 -0.0384595 2.14783
-0.0201366 -0.105214 2.16139
0.0253711 -0.171305 2.19192
0.0792434 -0.178023 2.2302
0.024466 -0.186877 2.19097
-0.0774851 -0.313977 2.17056
-0.0358308 -0.332393 2.18894
0.0955344 0.277614 2.15141
-0.137446 0.371492 2.10106
0.100493 0.263463 2.16075
-0.096707 -0.198072 2.15086
0.24702 0.389184 2.18265
-0.0268056 -0.18254 2.171
-0.0258037 -0.169273 2.17124
-0.095146 -0.167136 2.14928
0.0275276 -0.158157 2.19078
0.153727 0.243873 2.17984
0.210999 0.242263 2.23287
0.00194763 0.491572 2.12329
0.105676 0.238254 2.21563
0.104774 0.236705 2.19802
0.211681 0.234268 2.24004
-0.0205033 -0.111236 2.16788
-0.0457567 -0.102423 2.1532
-0.037063 -0.102473 2.15338
-0.290905 0.477699 2.01201
0.0117545 -0.061941 2.16943
-0.0197955 -0.0513238 2.15078
-0.0248192 -0.0345256 2.14253
0.220603 0.429788 2.17508
-0.0431559 0.327993 2.12729
-0.0489553 0.322248 2.13467
-0.0647483 -0.323631 2.17739
0.00192928 0.0792176 2.26129
-0.0530164 0.127769 2.28422
-0.0254696 0.138989 2.27631
-0.0638637 0.345245 2.13208
0.250539 0.442498 2.18385
0.0255971 -0.0225844 2.16967
0.0318821 -0.151604 2.19037
0.249107 0.413374 2.18313
-0.0377149 -0.337218 2.18794
0.0657761 0.294673 2.1477
0.00688139 -0.318536 2.20995
-0.063529 -0.322851 2.1789
0.222246 0.244338 2.23389
0.0191035 -0.202768 2.19108
0.110838 0.239952 2.18824
0.211351 0.241327 2.23708
0.0205349 -0.184447 2.19042
0.0800052 -0.177681 2.23165
-0.000320462 -0.172708 2.18305
0.0291286 -0.157534 2.19299
-0.0202189 -0.10713 2.1595
-0.0457248 -0.103832 2.1495
0.00913968 -0.0763344 2.16768
0.0112463 -0.0622811 2.17054
-0.0197586 -0.0399455 2.14575
0.025271 -0.0228749 2.17135
-0.0172777 0.149101 2.29575
-0.00107612 0.146221 2.28725
-0.0244966 0.125023 2.28703
-0.0231415 0.112284 2.28966
0.240231 0.406342 2.18216
0.00160723 0.322849 2.13792
0.0153876 -0.0473299 2.16885
-0.0863739 -0.331508 2.16717
0.208779 0.292585 2.18889
0.205273 0.248382 2.22927
0.20718 0.291303 2.17427
-0.0821293 -0.213998 2.15513
-0.0789583 0.161432 2.3772
-0.0431251 0.326005 2.13355
0.00618029 0.31686 2.12761
0.0950249 0.275331 2.15956
-0.181998 0.286113 2.04389
0.235951 0.27795 2.19697
-0.0506234 0.304278 2.1477
0.0179725 -0.0915928 2.17472
0.034769 -0.0900904 2.17829
-0.0223315 0.085086 2.24622
0.0269255 -0.147594 2.18523
-0.0282718 0.25196 2.20587
0.249728 0.441011 2.18385
0.0366388 0.347975 2.13106
0.242561 0.391165 2.18686
-0.0557177 -0.334328 2.18084
-0.0447711 -0.334323 2.1828
-0.0263007 -0.329161 2.19007
0.0271388 -0.300232 2.21693
0.0518744 0.303005 2.14139
-0.00298377 -0.171927 2.17952
0.0688474 0.296186 2.1676
-0.107565 -0.165725 2.14688
0.0292137 -0.15686 2.19162
0.0674861 0.287805 2.14239
-0.0487169 -0.102625 2.1511
-0.0379714 -0.102383 2.15481
-0.0643789 -0.0554407 2.14844
0.00343082 -0.0529038 2.16437
0.0118102 -0.0193802 2.15202
0.00151829 0.0770742 2.24441
0.129917 0.220248 2.21449
-0.02136 0.110572 2.27641
-0.0160399 0.125296 2.26689
-0.0250576 0.139045 2.27252
-0.0171207 0.14819 2.27982
-0.00717092 -0.0627296 2.15949
0.0341031 -0.0880668 2.18021
0.0247426 -0.147726 2.1865
0.100138 0.262715 2.17077
0.168486 0.274158 2.17471
0.230886 0.276836 2.20214
0.205113 0.286544 2.1789
-0.0268105 -0.164038 2.16995
-0.100232 -0.303227 2.16085
-0.110781 -0.311647 2.1539
-0.0169293 -0.305926 2.19374
0.24652 0.346552 2.18614
-0.00538422 0.359562 2.11023
0.241635 0.405966 2.17763
0.0169391 -0.172528 2.17291
-0.0659576 0.492739 2.09504
0.0251884 -0.173427 2.17416
0.11551 0.233285 2.16672
0.0166331 -0.172885 2.17279
-0.0661535 0.492766 2.09442
0.117063 0.233022 2.16953
-0.0954837 -0.164431 2.17916
-0.000430194 0.143254 2.20902
0.026041 -0.174034 2.16963
-0.157487 0.25331 2.22058
-0.0713214 0.491427 2.0967
-0.0463367 0.497648 2.09333
-0.111136 0.491224 2.09841
-0.0124267 0.119765 2.21609
7.04959e-06 0.142599 2.20949
-0.0657378 0.49164 2.09662
-0.110869 0.491674 2.10069
-0.041459 -0.326971 2.19212
-0.0359611 0.306002 2.12464
-0.0720212 0.490648 2.0965
0.000404132 -0.174797 2.17129
0.0171479 -0.178338 2.17216
0.0244077 -0.186832 2.17528
-0.0663119 0.491207 2.09698
-0.0203069 -0.105908 2.15112
-0.0411788 -0.326477 2.19224
-0.0477644 0.492675 2.09532
-0.0388428 -0.102492 2.15001
-0.140775 0.488667 2.10154
0.0284832 -0.174028 2.17374
-0.117747 0.348302 2.12793
-0.123461 -0.250181 2.18145
-0.10102 -0.196199 2.17363
-0.00963148 -0.16899 2.17028
-0.0973233 -0.168362 2.17882
-0.0972875 -0.163959 2.1785
-0.19317 0.230007 2.24619
-0.0433908 0.327912 2.1235
-0.0150731 0.13283 2.20876
-0.0826772 0.345415 2.12355
-0.0627492 0.344535 2.12131
-0.122076 0.356683 2.12764
-0.12397 0.40338 2.11701
-0.108299 0.400267 2.11524
-0.141161 0.489945 2.10236
0.0744771 0.292819 2.12203
-0.0330316 -0.329354 2.19128
-0.0554097 -0.181831 2.16931
0.0175283 -0.176876 2.17194
0.0115952 -0.0207484 2.15242
-0.0101741 0.0766208 2.21853
0.00328133 0.487321 2.09525
-0.139254 0.370684 2.12777
0.0281858 -0.149307 2.17105
-0.0213342 0.248236 2.15251
-0.0459248 -0.333087 2.19112
-0.00116599 -0.173054 2.16826
-0.111282 -0.163307 2.17776
0.116369 0.23337 2.15339
-0.0106777 0.105893 2.22142
-0.00646916 0.120323 2.21208
0.132902 0.378458 2.10684
-0.123073 0.404938 2.123
-0.0656233 0.494714 2.08054
-0.0458258 0.498877 2.07698
-0.110368 0.496222 2.0918
0.0147516 -0.174373 2.16087
-0.119008 0.348 2.12463
-0.0336123 0.30785 2.11759
-0.0728908 -0.105997 2.1698
-0.0563322 0.492819 2.07968
-0.0384249 -0.107171 2.14541
-0.00122018 -0.173125 2.16301
-0.117198 0.348871 2.12442
-0.0619705 0.344557 2.11265
0.000313136 -0.172275 2.16484
-0.108239 0.49439 2.09187
0.015222 -0.170374 2.16914
-0.0249935 -0.113997 2.14001
-0.0714317 -0.110041 2.1695
-0.122234 0.408075 2.11796
-0.00430375 0.148015 2.21375
-0.152119 0.244563 2.18558
0.107801 0.239596 2.20841
0.10647 0.240081 2.21542
-0.155277 0.248526 2.19017
0.106293 0.239592 2.2146
-0.0480472 -0.330987 2.193
-0.0521816 -0.331652 2.19186
-0.210787 -0.303591 2.59255
-0.00022836 0.147382 2.21519
-0.0470674 -0.333847 2.18443
0.000618007 -0.176813 2.17079
0.0840404 -0.173609 2.25558
0.0250507 -0.178463 2.1794
0.0155391 -0.177373 2.17119
-0.0931619 -0.154751 2.18401
-0.153622 0.245891 2.18717
-0.000547213 0.146939 2.21381
-0.0461383 -0.334229 2.18378
0.0251274 -0.178659 2.18038
0.0965622 -0.1094 2.31062
-0.0683852 0.490822 2.11141
-0.00537857 0.1504 2.21888
-0.00805705 0.123411 2.21447
-0.00123416 -0.175034 2.17654
0.0161871 0.15581 2.22446
-0.0252526 -0.164958 2.1738
-0.073334 -0.167115 2.17927
-0.0393307 -0.323854 2.1904
-0.0011584 0.146908 2.21532
-0.179809 -0.345576 2.53885
0.0275813 -0.178168 2.17912
0.087861 0.235287 2.19758
-0.000710651 0.152096 2.22562
-0.0544258 -0.329772 2.18888
-0.00805956 0.123289 2.21448
0.0353439 -0.173012 2.18836
-0.00114312 0.142871 2.21562
0.0129961 -0.176528 2.17366
-0.00110101 -0.175429 2.17553
-0.0736673 0.495047 2.12501
-0.0395708 -0.323957 2.19251
0.0850511 0.238875 2.19615
0.103632 -0.0699794 2.31606
0.0616912 0.304345 2.14122
-0.0745519 0.488632 2.12371
0.0579007 0.308524 2.13408
-0.047048 -0.310844 2.18968
0.0666143 0.293756 2.13838
-0.0593928 0.490789 2.10771
-0.024709 -0.170823 2.16776
-0.04913 0.498355 2.10522
-0.0170351 -0.054086 2.14309
-0.0685175 0.490104 2.10933
-0.0499414 0.157655 2.21657
-0.0185662 0.165187 2.20377
0.11724 0.245327 2.18697
-0.0755318 -0.165854 2.18605
-0.00121505 -0.17544 2.17669
0.0121228 -0.17781 2.17344
0.0278542 -0.177986 2.17927
0.0354571 -0.177466 2.19009
0.0156711 -0.181401 2.17487
0.0868609 -0.173248 2.25207
0.0848893 -0.180894 2.24375
-0.0467048 -0.327731 2.18831
-0.0466854 -0.332477 2.18848
0.0106636 0.143318 2.2189
-0.053036 -0.332237 2.1791
-0.0737478 0.488219 2.10813
-0.0467662 -0.311819 2.18717
-0.0467809 -0.308067 2.18693
-0.0414409 -0.304179 2.18817
0.0231984 -0.167085 2.18488
-0.051323 0.150336 2.21083
0.0274218 -0.194179 2.1717
0.000620313 0.216316 2.19498
-0.0553703 -0.179739 2.16888
-0.0167149 -0.0545954 2.14055
0.0569166 0.309347 2.13635
0.0342705 -0.169951 2.19718
0.00429573 -0.053559 2.16319
0.127147 0.21946 2.23658
-0.0242662 -0.17064 2.16919
0.060873 0.304385 2.14628
0.0673226 0.295248 2.14129
0.000868047 -0.0684789 2.16297
0.103096 -0.091822 2.3166
0.0945161 -0.0650581 2.29468
0.0921913 -0.0694926 2.30003
0.0977138 -0.0725433 2.30948
-0.0397175 -0.1022 2.15262
0.15033 0.246106 2.19813
-0.0711957 -0.0991054 2.15829
0.0463727 -0.169329 2.20176
0.0156074 -0.178746 2.17782
0.00063239 0.217022 2.19488
-0.169835 -0.349019 2.53934
-0.154287 0.244241 2.18511
-0.00742302 0.327726 2.12994
-0.022208 -0.0393744 2.14755
-0.0232619 -0.0508997 2.15744
0.00548946 -0.0540309 2.15718
0.0935603 -0.0725309 2.29147
-0.0734662 -0.101094 2.16369
-0.0218413 -0.107344 2.1518
0.097533 -0.0770381 2.29861
0.107318 -0.13178 2.32802
-0.0698303 0.490652 2.11182
-0.00133746 -0.177184 2.17204
0.0260244 -0.177094 2.18171
0.0388044 -0.184216 2.18062
0.0852865 -0.182127 2.24128
-0.139509 0.365716 2.13929
-0.0217062 0.385518 2.12007
-0.0450966 0.167313 2.21008
0.0991927 0.266992 2.16449
-0.0948634 -0.15918 2.18254
-0.112681 -0.152806 2.1872
-0.266871 0.327622 2.23058
-0.0412079 -0.320434 2.18766
0.193324 0.278011 2.21116
-0.0336944 -0.324015 2.1994
-0.038561 0.278427 2.14204
-0.00500153 -0.0722065 2.15488
0.0115929 -0.0182881 2.15706
0.0380229 0.0881036 2.24402
-0.0112128 0.112627 2.21554
0.0275722 -0.208721 2.17452
0.12476 0.390763 2.13978
0.0334803 0.379699 2.11791
0.0945891 0.281429 2.15182
-0.0707429 0.488042 2.10821
-0.0240622 -0.330518 2.19328
-0.0317627 -0.328058 2.19084
-0.0561089 -0.321051 2.19496
-0.0627082 -0.31929 2.18201
-0.156385 0.24393 2.18625
0.137666 0.233543 2.23491
0.130669 0.219669 2.22073
0.00987663 0.141702 2.21928
0.0212347 -0.190673 2.17676
0.0338712 -0.189665 2.15985
0.0363497 -0.184577 2.18183
0.0145415 -0.177293 2.18514
0.000822223 -0.178044 2.16904
-0.074541 -0.169036 2.18071
0.0882536 -0.10032 2.29241
0.105883 -0.0945198 2.32053
0.102789 -0.0910051 2.31477
-0.0215202 -0.0404271 2.1421
0.0930813 -0.0814294 2.29849
0.0979331 -0.0776086 2.30584
-0.021155 -0.110151 2.14641
0.0937917 -0.0732769 2.29009
0.0102819 -0.0651514 2.16528
0.0251277 -0.0246912 2.16796
0.00935319 -0.0809061 2.15437
-0.0158931 0.136026 2.21502
-0.0340226 -0.115899 2.14303
0.196849 0.276889 2.20529
0.102557 0.26429 2.15828
0.126835 0.252179 2.17007
0.139224 0.249021 2.19995
0.122234 0.391154 2.14845
-0.141888 0.366874 2.14257
0.095087 0.27961 2.15415
0.221245 0.308589 2.21806
0.0438862 -0.206963 2.18662
-0.0182971 -0.329589 2.21076
-0.0660089 -0.330251 2.18417
-0.0567018 -0.330079 2.18652
-0.0567247 -0.323588 2.18611
0.0226588 -0.208738 2.17613
-0.0263953 -0.202525 2.15966
0.0256115 -0.195638 2.17637
0.0326583 -0.182069 2.192
0.0145126 -0.176474 2.18515
0.0235559 -0.172857 2.18812
-0.0297333 -0.16035 2.18329
-0.0159592 -0.153579 2.17351
0.0253231 -0.153629 2.17368
-0.03296 -0.121893 2.15285
-0.0298424 -0.121512 2.12602
0.0351283 -0.108272 2.18832
0.094302 -0.08216 2.30084
0.105774 -0.0784815 2.31923
-0.0268552 -0.108847 2.15383
0.0908276 -0.0783914 2.27855
-0.039222 -0.102757 2.14991
0.0177053 -0.0990194 2.15369
0.00660969 -0.0804244 2.16273
-0.0641549 -0.0552359 2.14034
-0.0194448 -0.0539211 2.14814
0.0173804 -0.0507023 2.15065
0.0244272 -0.0254005 2.1655
-0.0398266 0.0789771 2.21741
0.00693579 0.0805069 2.2328
0.0698618 0.0936677 2.27908
-0.00905356 0.108755 2.21253
-0.0311934 0.118835 2.21751
-0.00786841 0.125641 2.22472
-0.0150731 0.136064 2.20878
0.0111668 0.143019 2.21737
-0.00634184 0.145489 2.2111
0.13194 0.219172 2.21443
0.1366 0.232563 2.22523
0.172355 0.238144 2.25755
0.141539 0.249209 2.19872
0.100873 0.265414 2.16455
-0.0377958 0.268213 2.1543
0.0505923 0.3073 2.14134
0.0593892 0.313754 2.1444
-0.0849286 0.344685 2.12395
-0.11026 0.356523 2.13026
-0.141491 0.366565 2.13652
0.0485221 0.435383 2.11909
0.0976593 0.438266 2.12517
-0.0690033 0.489952 2.10622
-0.00735143 0.493522 2.10987
-0.0613314 0.495989 2.08952
-0.0612519 0.489224 2.08954
0.0860108 0.234925 2.19935
-0.0460159 -0.329868 2.18107
-0.0453074 -0.333729 2.18289
-0.0469338 -0.33425 2.18092
0.0237587 -0.175288 2.18898
0.0134609 -0.173346 2.18212
-0.0457546 -0.333825 2.18164
-0.0616077 0.489522 2.0926
0.022942 -0.189227 2.18923
0.0860966 0.235386 2.20193
0.0836343 -0.181651 2.2575
0.0209916 -0.171879 2.18901
-0.0524113 -0.331777 2.18022
0.0122278 -0.17378 2.18101
0.0847072 0.238994 2.19716
-0.049786 -0.322724 2.17816
-0.0293376 0.167792 2.22799
-0.0408167 -0.102002 2.13543
-0.0535348 0.488962 2.09346
-0.0422327 -0.329596 2.18453
0.0201635 -0.172161 2.18151
0.0201346 -0.177552 2.18557
0.02465 -0.175329 2.19182
-0.0450312 -0.328954 2.18095
-0.0523765 -0.331858 2.17499
-0.0473985 -0.310077 2.18227
-0.0437067 -0.305191 2.18738
-0.0522744 -0.180881 2.15915
-0.0298938 -0.178945 2.16996
-0.0175607 -0.051506 2.14476
0.0568047 0.307158 2.13952
0.0107058 -0.0651106 2.16603
-0.0316354 -0.332258 2.19296
-0.0173124 -0.104324 2.15063
0.0150078 -0.175348 2.18538
-0.0181188 -0.0387295 2.13966
-0.0186146 -0.10529 2.14724
-0.0427842 -0.330687 2.18418
0.0193043 -0.186456 2.18772
0.0693337 0.291038 2.13932
-0.00869578 -0.325889 2.21127
0.0631022 0.302512 2.1353
-0.0623538 -0.320868 2.1745
0.0191974 -0.186629 2.1883
-0.0508867 -0.181673 2.16022
0.00897067 -0.174498 2.1823
-0.0702202 -0.104133 2.15193
-0.0137427 -0.0536416 2.14142
0.0114864 -0.0634502 2.16593
0.00897712 -0.0778238 2.15979
0.00230219 0.321892 2.12775
-0.0271352 -0.198584 2.16597
0.0677137 0.290224 2.14528
-0.0188316 -0.307042 2.2054
0.0237401 -0.191673 2.1881
-0.00352994 -0.173302 2.18195
0.00834326 -0.173882 2.17975
-0.0160219 -0.125345 2.15771
-0.0225247 -0.106899 2.14747
-0.00362702 -0.0718347 2.14816
0.0153071 -0.0481153 2.15853
0.122666 0.235871 2.17968
0.0163766 -0.174401 2.17282
-0.0639468 0.489893 2.09817
0.0135159 -0.0640315 2.15741
-0.065027 0.488728 2.09555
-0.0556481 0.489833 2.09686
-0.0447393 0.496362 2.09436
0.0188256 -0.173869 2.17898
-0.0647513 0.489108 2.09787
0.00118278 -0.175107 2.17243
0.0175276 -0.179963 2.17362
-0.107838 0.486372 2.10214
-0.0535585 -0.180555 2.16783
0.019451 -0.178422 2.17615
0.0124276 -0.175792 2.17221
0.00324388 0.487208 2.09361
0.0123698 0.0757578 2.2242
0.00557467 0.163562 2.20485
0.000971734 0.489671 2.09351
-0.0617817 0.492386 2.08872
0.0653554 0.306606 2.11422
0.0997925 0.243224 2.22952
0.0800722 -0.184798 2.25985
-0.501411 -0.202356 2.60683
0.0113493 -0.176422 2.18178
0.0696291 -0.105887 2.33387
-0.479433 -0.113461 2.72676
-0.410267 0.367243 2.48482
-0.0181776 0.155672 2.24085
0.233336 0.468073 2.15252
-0.501149 -0.202752 2.60527
0.0799892 -0.182292 2.26583
0.0716093 -0.106918 2.32967
-0.485211 -0.232915 2.60581
-0.0464313 -0.331758 2.18169
0.0768644 0.397244 2.65927
0.232965 0.453205 2.15675
-0.00317883 -0.175169 2.18029
0.0124922 -0.177328 2.17905
-0.0481798 -0.330063 2.1883
-0.499369 -0.201886 2.60836
0.078197 -0.18513 2.26237
-0.0483675 -0.325969 2.1885
-0.31965 0.449628 2.19908
0.0739933 0.3973 2.66358
0.224774 0.466166 2.15618
0.115757 0.249719 2.20064
-0.0435174 -0.31895 2.20081
0.250827 0.434317 2.17185
-0.0593024 0.488903 2.10734
0.0793278 -0.11975 2.35556
0.0729774 -0.107569 2.32674
0.0286943 -0.181938 2.1768
0.242956 0.540963 2.14526
0.0827331 -0.183529 2.26195
0.0795702 -0.186495 2.25826
0.110802 0.480344 2.57306
0.0203603 -0.179067 2.17222
-0.0759763 0.484694 2.11454
0.229697 0.466915 2.15633
0.22805 0.466225 2.14987
0.231401 0.462318 2.1569
0.230907 0.45897 2.1459
-0.499369 -0.201886 2.60836
0.238506 0.444635 2.15279
0.253175 0.434185 2.16877
-0.0571751 0.488877 2.10156
-0.0556714 -0.315375 2.19499
-0.160099 0.245963 2.205
-0.0437741 -0.318521 2.20262
-0.0473548 -0.32677 2.18662
-0.0517956 -0.326833 2.1983
-0.0412637 0.310984 2.14933
0.243188 0.422063 2.17548
0.228442 0.414251 2.17157
0.0758879 0.241915 2.2163
0.242045 0.404936 2.16952
-0.4747 -0.235814 2.59942
0.082403 -0.0847457 2.35994
0.0275544 -0.196457 2.17278
0.13772 0.238296 2.24299
0.219097 0.445434 2.15817
0.247049 0.394469 2.17393
0.260534 0.450857 2.1691
0.0647828 0.307552 2.1362
0.23203 0.45387 2.16017
-0.0652275 0.157048 2.24614
-0.0148393 0.150509 2.24813
-0.0102894 0.148934 2.25105
0.145183 0.444921 2.6233
0.227725 0.466743 2.15904
0.233343 0.465819 2.16077
-0.0206755 0.148428 2.24399
0.0707444 -0.0876984 2.34431
0.069696 -0.106059 2.33376
0.0845173 -0.103277 2.36931
0.0753047 -0.113124 2.34512
-0.0577527 0.171095 2.2431
-0.00500648 -0.175892 2.18147
0.0257177 -0.180001 2.18487
-0.00764944 0.219799 2.21517
0.00269683 0.222745 2.2008
0.0293323 -0.198746 2.16783
0.00603917 -0.175558 2.18867
0.0160105 -0.182014 2.16405
0.230202 0.439971 2.14942
0.143819 0.251488 2.17672
0.0737929 -0.0811161 2.37774
0.087848 -0.09962 2.35795
-0.0445383 -0.0972503 2.15393
-0.0485666 -0.329003 2.19277
0.0850366 -0.0954516 2.35543
0.0839465 -0.099261 2.35404
0.000462126 0.1462 2.24358
-0.0541605 -0.317338 2.191
0.0144843 -0.182532 2.17806
0.225132 0.434817 2.16761
0.239339 0.540023 2.15258
0.052979 0.0736651 2.37933
0.246169 0.414934 2.18532
0.248216 0.420753 2.16881
0.249169 0.433811 2.17355
0.0201047 -0.192009 2.17993
0.0406919 0.085387 2.34006
-0.0474716 0.0849967 2.24632
-0.0207377 -0.172222 2.15974
-0.0424864 -0.315134 2.19663
-0.0345698 -0.175803 2.18094
0.0832015 -0.0850801 2.37034
0.24426 0.409306 2.18164
-0.0293078 -0.300947 2.21804
0.244815 0.394399 2.17822
-0.0561204 -0.176466 2.17008
-0.202757 0.24058 2.2366
0.257138 0.454777 2.16799
-0.020605 0.156548 2.24702
-0.011338 0.150532 2.25267
0.068147 -0.11156 2.33968
0.08156 -0.180478 2.26597
0.231696 0.414765 2.16436
0.251634 0.422237 2.1638
0.247028 0.433337 2.16177
-0.0351944 -0.322021 2.20293
-0.055639 -0.31542 2.19373
-0.0659786 -0.310893 2.18937
-0.0521372 -0.303627 2.19618
0.26483 0.312463 2.19846
-0.0401351 -0.302423 2.18808
0.0270139 -0.195875 2.17503
0.0229596 -0.193705 2.17288
0.0382475 -0.188158 2.1825
-0.0506056 -0.179093 2.16096
-0.0346547 -0.17608 2.17804
0.0183446 -0.182084 2.17136
-0.00344112 -0.176572 2.17737
0.0376623 -0.178715 2.18312
0.088293 -0.136444 2.36855
0.114086 0.249231 2.19152
-0.00579325 -0.169639 2.17671
0.0856467 -0.124426 2.36813
0.0805226 0.239875 2.21984
0.139452 0.237565 2.2355
0.000871782 0.220052 2.20773
0.234797 0.466545 2.15755
0.0822333 -0.0843203 2.34815
0.231318 0.468713 2.15434
-0.0257 0.182099 2.2463
-0.0744842 -0.0919684 2.1649
0.247132 0.468937 2.17206
0.159793 0.446602 2.66518
0.0467068 0.0796599 2.32463
0.0480589 0.0840597 2.32626
0.249822 0.474868 2.17242
0.200061 0.307025 2.19902
-0.312148 0.404982 2.19824
0.117097 0.438605 2.59831
-0.26322 0.311194 2.23689
-0.167019 0.245761 2.21286
0.0796601 0.239559 2.22194
0.135131 0.236508 2.23963
-0.0543302 -0.319263 2.1889
-0.0301119 0.168562 2.23464
-0.0680132 0.157845 2.24993
-0.00760648 0.151493 2.24795
0.0390782 0.0883408 2.34074
0.0852263 -0.183798 2.25706
0.0276172 -0.196416 2.1759
0.0227503 -0.193812 2.17333
0.0377117 -0.18951 2.17953
0.0197287 -0.182587 2.17269
-0.00403422 -0.175877 2.1812
-0.000721594 -0.0510644 2.17037
0.00501066 -0.071482 2.15005
0.0820308 -0.117443 2.37311
0.0538017 -0.0569251 2.36651
0.0824668 -0.100193 2.3532
0.0715135 -0.0887647 2.346
0.0687269 -0.0730327 2.3307
0.0688001 -0.0787281 2.32609
-0.0283382 -0.117808 2.1276
0.258001 0.442233 2.16673
-0.00892407 -0.0708601 2.16369
0.0446208 0.0808039 2.32311
0.0337086 -0.218622 2.1554
0.00491067 -0.214557 2.16141
0.0622592 -0.210099 2.2844
-0.132507 -0.26254 2.2057
0.227723 0.454405 2.16587
0.251882 0.474154 2.1691
0.00599613 -0.299666 2.23805
0.206006 0.281937 2.18586
0.0571752 0.312876 2.13176
0.233232 0.314964 2.19344
0.211258 0.462095 2.15036
0.263485 0.31831 2.19846
0.235842 0.465938 2.14873
-0.0833679 0.342872 2.13039
0.241727 0.369262 2.19782
0.120596 0.478065 2.59188
-0.058257 0.374532 2.12694
0.102926 0.444812 2.11421
-0.256564 0.328183 2.23352
-0.00809563 0.152506 2.24773
-0.126055 -0.146172 2.18917
-0.133394 -0.20263 2.20513
-0.0349554 -0.194629 2.1812
0.0425113 -0.192539 2.16943
0.00779304 -0.177947 2.17654
0.230806 0.440527 2.15533
0.0787823 -0.0852252 2.33011
-0.0152065 -0.068342 2.17376
0.012181 -0.0618567 2.16461
-0.00798084 -0.0481533 2.17986
-0.0398512 0.268786 2.15971
0.0210135 -0.0247243 2.17388
0.138719 0.253544 2.1819
0.087868 0.246319 2.22561
0.0352359 0.0828357 2.34397
-0.00261359 0.146553 2.25088
-0.0530925 0.166008 2.2198
-0.0116004 0.167876 2.24698
0.0170239 0.166957 2.2415
-0.02479 0.173459 2.23866
-0.0334182 0.251588 2.18764
0.0599397 -0.0146472 2.22761
-0.10854 -0.0172411 2.17803
0.17646 0.285073 2.15891
0.0585373 0.309657 2.12198
-0.00280034 0.32492 2.13704
-0.088688 0.343334 2.13481
0.246523 0.369847 2.18837
0.100718 0.445462 2.11665
0.227582 0.466096 2.15886
-0.0549963 0.256995 2.17466
0.0896292 -0.159497 2.25908
0.105235 0.240986 2.22127
-0.0184438 0.170132 2.2149
-0.0927771 -0.152422 2.18415
-0.0471862 -0.32788 2.18726
-0.017823 0.16928 2.21027
-0.0477481 -0.332311 2.1847
0.023273 -0.177923 2.17766
-0.337881 -0.204408 2.70901
-0.0459557 -0.329521 2.19229
-0.0909965 -0.15604 2.18042
-0.047677 -0.327746 2.1885
0.000224853 -0.175709 2.17405
0.0152008 -0.177151 2.17414
0.0230922 -0.178624 2.17749
0.0249869 -0.1783 2.18214
-0.338572 -0.197505 2.70765
-0.0460398 -0.319766 2.19229
-0.0185587 0.170213 2.21584
0.0660092 0.296467 2.14021
-0.013922 0.124697 2.22876
0.0279799 -0.178929 2.17744
0.0143467 -0.180793 2.17608
0.0876472 0.233495 2.20674
0.104176 0.24036 2.2208
-0.333047 -0.19889 2.70502
-0.0468739 -0.330694 2.18936
0.0273618 -0.194347 2.17281
-0.0108216 0.14546 2.22737
0.00147022 -0.0684307 2.15847
-0.0954466 -0.155679 2.18569
0.0277789 -0.178132 2.18083
0.0113989 -0.176567 2.17914
0.0128006 -0.178965 2.16921
0.0847654 0.237085 2.21409
-0.0399017 -0.323201 2.19233
0.0156387 -0.181436 2.17572
0.039 -0.184595 2.18063
0.0234662 -0.191917 2.17388
-0.0390909 0.0814957 2.232
0.000723834 0.146912 2.23266
-0.0220848 -0.0380231 2.14576
-0.0480671 -0.330678 2.19001
-0.0424275 -0.317001 2.19762
0.0549208 0.311125 2.13852
0.0246428 -0.193118 2.17874
-0.0269901 -0.181755 2.16476
0.0160889 -0.179728 2.17495
-0.0263604 -0.166502 2.17669
-0.0264111 -0.16197 2.17662
-0.0107684 0.178191 2.22096
-0.0716313 -0.0963653 2.16017
-0.00478119 -0.0714631 2.15289
0.00547371 -0.0529851 2.15702
-0.0226569 -0.0504966 2.15188
0.00667622 0.144981 2.23548
-0.0559077 -0.325637 2.19231
-0.0559558 -0.320151 2.19221
-0.0209006 0.165707 2.21894
0.00318496 0.148537 2.23005
0.00800137 0.14357 2.23237
0.0216218 -0.191348 2.17481
0.0365794 -0.186651 2.1812
0.0154192 -0.17882 2.17966
0.00560339 -0.0541287 2.15954
0.00977451 -0.0634481 2.16894
-0.0734507 -0.0990508 2.16093
-0.00420598 -0.0734865 2.15558
-0.011584 0.111609 2.23107
0.0183494 -0.208902 2.18112
0.10389 0.240255 2.22371
-0.0195505 -0.0516059 2.14809
-0.0274545 -0.199021 2.16771
0.0252619 -0.19457 2.17955
0.0184748 -0.182647 2.15814
0.0147795 -0.176397 2.18397
0.0340007 -0.176159 2.18304
-0.00332421 -0.173798 2.17634
0.00337046 -0.0530982 2.1602
0.0240238 -0.0248408 2.16857
0.129542 0.222378 2.21544
0.00915275 0.143711 2.23141
0.0241873 0.164992 2.22989
-0.0328234 0.121108 2.23011
-0.0105112 0.110672 2.22302
-0.00795757 -0.112285 2.15593
-0.00746259 -0.0648958 2.14672
0.0236479 -0.17646 2.18563
0.0136743 -0.174079 2.18098
0.0136114 -0.178262 2.18296
0.0243251 -0.175608 2.18825
0.0235495 -0.175738 2.18151
0.013771 -0.177847 2.18129
-0.0470326 -0.319857 2.18152
-0.0136255 0.146468 2.24609
0.0120631 -0.175097 2.18148
0.0864099 0.236917 2.2117
0.0356495 -0.180447 2.19253
-0.0547695 0.0777719 2.2571
-0.0505857 -0.329644 2.1746
-0.0400309 -0.320682 2.18787
0.0551135 0.308408 2.14113
0.0193039 -0.187294 2.18369
-0.0254442 -0.180779 2.1605
0.0151083 -0.176029 2.18111
0.0863676 0.237056 2.21111
-0.0348285 -0.330007 2.19305
0.0193039 -0.187294 2.18369
0.0163818 -0.176226 2.18262
0.0123264 -0.0625414 2.16551
-0.0258858 0.109988 2.25458
-0.00854694 0.148425 2.24872
-0.0142596 -0.0515156 2.13768
0.00832721 -0.174931 2.17964
-0.00303725 -0.172864 2.17759
0.00401891 -0.0523883 2.15882
-0.0147877 -0.123873 2.15558
-0.0632328 0.489054 2.0971
-0.0660859 0.48705 2.0944
-0.106085 0.48528 2.10543
-0.0499864 0.488954 2.0883
-0.0541609 -0.306149 2.19004
0.00868561 0.144007 2.22081
0.00141814 -0.174624 2.17319
-0.108115 0.485194 2.1059
-0.0677357 0.488142 2.10157
0.0863202 -0.195088 2.25905
0.0268688 -0.183846 2.1757
0.0233658 -0.182497 2.1614
-0.0562532 -0.31943 2.20266
-0.482211 -0.235559 2.59829
-0.0348849 0.28134 2.14947
0.0695578 -0.118299 2.33754
-0.0125744 0.310747 2.13153
-0.0577941 -0.318414 2.20557
0.0190487 -0.180934 2.16804
-0.0609081 0.485805 2.09445
0.0166576 0.0621571 2.43657
0.0796725 -0.0690441 2.33039
-0.0537443 -0.325096 2.19745
0.0172518 -0.179636 2.18872
-0.057858 -0.318694 2.20487
-0.48092 -0.237622 2.59634
0.0695722 -0.111669 2.35295
-0.0254179 0.170438 2.22282
0.000317128 0.221448 2.2008
0.0191148 -0.18097 2.16672
-0.0509317 0.489289 2.09174
0.0246883 -0.188254 2.15991
-0.0983632 -0.14691 2.18986
0.0687441 -0.0988021 2.35047
-0.0710834 -0.158011 2.18151
0.0574574 -0.0889839 2.35344
0.0704741 -0.0826507 2.33312
0.00563448 -0.0679863 2.15162
0.0893629 -0.194913 2.25554
-0.0172842 -0.0332458 2.13615
-0.0599692 0.485904 2.09114
-0.00126785 0.146736 2.23622
-0.0599694 -0.317276 2.20839
-0.526208 -0.182031 2.59666
-0.0506013 -0.159679 2.15596
0.260099 0.330813 2.19732
0.0404013 0.0804791 2.33637
0.0228892 0.0581477 2.41607
0.00478092 -0.0685209 2.15208
0.072679 -0.100761 2.34614
-0.0816225 -0.155117 2.19636
-0.00236189 -0.176908 2.17659
0.0337988 -0.184051 2.17128
0.0231664 -0.183489 2.15913
0.00653623 -0.177903 2.18061
0.0782184 -0.0981817 2.33099
-0.0242164 -0.100692 2.1582
0.0758596 -0.105407 2.37386
0.070128 -0.111287 2.32416
